2.436677989228151 -0.1776579459627163 3.450869674764681
2.42339139865198 -0.1480101188142788 3.443973059736299
2.436204966767214 -0.1701534827669156 3.456801290594148
0.992198046906374 -1.623782261224557 3.381310935102511
2.587673243744753 -0.2207749923189175 3.673959727369356
2.590914782746218 -0.238004549356271 3.696856970869112
2.676973399384401 -0.1557481130083096 3.764296288572359
2.840371188385866 0.5503842989484774 3.956176991544771
-0.02363918288192934 -0.02534638247089505 3.38398587235074
1.040410098297976 -0.5145639022310269 3.778620476804781
2.615620669587038 -0.01578365168171048 4.119307274900484
2.611145314438723 -0.01642702421741604 4.145516629301119
1.102876719696901 -0.5962123712022793 3.881057972990083
2.8105981914834 0.7171963612119663 4.204781766019869
2.807765301926516 0.7225810448209751 4.254714722715425
1.118945059044741 -0.6074747880418789 4.029700989805269
2.526940163834475 0.03295542397899509 4.329560036741304
2.538045939667605 0.03279461064739109 4.351896519743013
2.512235697968386 0.02437986531658054 4.360235686384248
2.53137308047571 0.04104103246135593 4.368049140058565
1.191838320954226 -0.7102182944734585 4.147611613355684
2.502390918000124 0.07771410146160007 4.467779393278169
0.9669514267281514 -0.3542855819185269 4.20710348614316
0.9457177488640767 -0.4696357091386807 4.353360409818697
1.079128202660463 -0.6188311418016446 4.40522336491208
0.9906073181466084 -0.4389016469438565 4.377465005003023
0.9611445038155537 -0.4345400174577725 4.377906556211519
1.134001907570742 -0.7222224315126433 4.439846987806368
0.8546093075112324 -0.3791816075761807 4.388637299619722
2.789529618485354 1.108225674418639 4.6646122885571
0.4327774612740498 0.1284991661588657 4.289785380445528
1.170548614724062 -0.7236472209413543 4.511245007597017
1.167255219681643 -0.6963620027025235 4.512740368925142
2.298133429749392 0.1686502853910434 4.720501179777193
0.1510803668335896 -1.401887281747629 4.430703396879244
1.136518534882448 -0.7311547835786834 4.577209467969942
0.7997631399468403 -0.3302495320756924 4.481563086591768
0.7754948108033162 -0.3398549397905362 4.496193404279756
1.174354132874392 -0.746997221322824 4.600330109678316
2.257504519684694 0.09384168782634617 4.826642508588838
0.4446107117966633 -1.108408315988351 4.611095662199068
2.228273925049685 0.1428923765699375 4.892301793180513
0.4674959747628193 -1.026750667901803 4.652019019208955
2.159354266388796 0.1221572319547641 4.894096846662569
0.3935423164204579 0.137615338949393 4.574068303190279
0.4591916172341328 -0.9790116389711394 4.684370274625826
2.183719691498659 0.1144471327344883 4.941761965833711
0.3770564465359669 -1.008761032434274 4.692145342908907
0.3786343900994282 -1.038144453378488 4.703683133207369
2.190431174500368 0.1177655617277134 4.959952111326265
0.4841707913712483 -0.8886641105134978 4.731458897672701
1.415764388306521 -1.530437095971872 4.951077933393526
0.3600674240426045 0.09965933957500339 4.665045256696748
1.373899397118471 -1.544692142816354 4.96306371220212
0.3366817502812367 0.1226153532545078 4.6981656504498
0.9892464248970967 -1.636842115732004 4.943476433836031
1.408881243927858 -1.514011724801828 5.023195977293062
0.4785355298356038 -0.6758309443910611 4.82930635937314
0.9547436802224141 -1.487545355172922 5.007380004011202
0.8292555181817036 -1.557124002786447 4.99742364414792
1.386890229447268 -1.488649471612741 5.091068739973116
0.8222160308197957 -1.536859377237131 5.005682940565157
2.026818570359133 0.1157524744550693 5.114127631269502
1.322052416069887 -1.490704878183175 5.105850215040254
1.99337464259424 0.05114092030925632 5.132328028760957
2.03880077288904 0.1409408012907016 5.132427210889864
1.318057712777041 -1.494853599878121 5.113806481443453
1.97718983577051 0.0442183176557529 5.142380232893037
1.961468991501711 0.0367340008298862 5.154649252973604
1.984090384705446 0.09110893407268406 5.176007504545259
1.329321440918825 -1.413400753351022 5.158671851240205
1.879176673157595 0.06138934293193699 5.270951981626558
1.099440988762758 -0.7347637256105433 5.222234244428682
1.725866374237917 0.01297344365520359 5.302485222898531
2.737568196518801 1.399942846087645 5.447866435133028
0.7099772064522725 -0.9731649001558313 5.265656943403291
2.738463219864748 1.402623103050421 5.458380217634248
1.682626780732058 0.02309717336101413 5.400711054884004
1.087494906647585 -1.177055700631906 5.415368313871431
2.713503417237185 1.420328126339148 5.536633009992647
2.712787446244143 1.426537246493529 5.555764670454073
1.155296024544619 -0.2251298268754971 5.613327498518037
1.124432262642763 -0.2231253226717007 5.628442759595918
0.3561850159005147 -1.630150659890939 5.904477591596651
2.389362391693972 1.479725734380912 6.152283663831758
0.9967642395333272 0.007991449026297337 6.293017382703828
1.418191727860354 -1.417972906442452 6.414722437940645
0.1850223510102253 1.318589414520096 6.247924800001192
1.013919290764711 -0.7916289409120569 6.379264350019502
1.034376439316652 -0.8515041907747278 6.391921992384004
1.045016702874086 -0.8270722468812952 6.404110903821993
1.330953654511355 0.9590364853422153 6.413299079023409
0.2352581589058858 -1.199100836129952 6.376636023603487
0.2411766617135029 -1.178823812814523 6.376738066755342
0.2308588890866261 -1.205004556985665 6.390373702131319
1.111022886498354 0.4678531447927464 6.438016886793184
1.290430363877199 0.9043897251169193 6.450505251966524
1.291703399880312 0.887153343347739 6.457512850843477
-0.8831497461958904 -1.033869131418038 6.334722991071748
1.127425250275515 -0.01612077555256008 6.490906710706758
1.370437678559206 1.044465766338538 6.492546076856661
-0.4586859972640056 -1.644665582986642 6.393219466291475
1.318106707795046 -1.236522539468575 6.561648840986299
1.396141823990725 1.046431304005812 6.537142272077608
0.1957941620186787 -1.439179762216378 6.503326888166475
0.9421799747780781 0.05725337663097263 6.564887518964815
0.7727999059990864 -0.9952598651369104 6.626376624189424
1.223255213959597 -1.068824632974435 6.676584715925264
-0.2737630785866756 -1.568529947610665 6.585723395429659
1.188077267868898 -0.7784494002779017 6.703240866743135
1.007247266037844 0.495863095907401 6.702132220350313
1.155519899590395 -0.8020320971925745 6.729931349836397
-0.5039215715094585 -0.7702604373415003 6.634546752058077
0.2299404709176045 -1.199285848947335 6.696875090681123
-0.2649165125056285 -0.6873298724611294 6.670696253858614
-0.3268559010191936 -0.7093788226564419 6.682067389570284
-0.2633227886124629 -1.474199159951974 6.699706549726534
-0.2582229406996746 -0.6790709336717617 6.696854109846162
1.111308273537539 -0.6009591659029019 6.780550475202608
1.093074497445009 -0.657708032937814 6.822255129896211
-0.2670678527518291 -1.479448660226632 6.751716132246065
1.071335968239687 -0.07017825445728421 6.841440196119356
-0.09314921716741509 -1.289053781839181 6.800647730909395
-0.1022163576870341 -1.181515081735421 6.817466731153536
0.7364638416604024 0.7175800959150304 6.9885549498425
0.01218073503532224 -1.126531704278756 6.989617819868135
1.178703364594362 -1.263553007455636 7.126970286451387
0.9953896372155171 -1.007945164056588 7.12194346912961
0.994915184243105 -0.9783297618349085 7.121716971479463
0.958344516022585 -0.8887208541353235 7.129529948316621
1.226031121476076 -0.3178219636400232 7.206505770765352
1.147152003510378 0.482508317617606 7.271721358381319
1.142917689545534 0.4687224785367955 7.285108084760713
1.018718299134157 0.4116439382116307 7.458181853376436
1.016698416932009 0.1430095593015661 7.581713671766328
0.99524026797571 0.3652512589971532 7.59210776814084
2.304403361542605 -1.271544082971384 1.966811682067919
2.313993510468386 -1.253492697091867 1.985865111433077
2.324981030686281 -1.157128198953439 1.989411289773989
2.334415015442751 -1.081530674310495 2.070939178548861
2.437957820160769 -0.86930476030903 2.152047569833803
2.465455350144289 -0.6078389724214568 2.112226541124392
2.467925843460939 -0.5940006812532439 2.154312903963137
2.528799828751467 -0.6269332011659636 2.198982532106447
2.490215596421145 -0.598873122545053 2.207526798330355
2.531262215836428 -0.5923892100770964 2.350492591939974
2.670875844223879 -0.4758014520128264 2.746756787382173
2.681770381195925 -0.4458354552705779 2.743927474103975
2.744399842484377 -0.3729312261064543 2.837269182287264
2.843096789582155 0.1720873276273716 3.402756209455537
2.594485339386843 -0.163827999444772 3.665139193616914
0.9210205643013936 -0.5594112714250576 3.515709872327852
2.6672294704751 -0.07419370016651272 3.992518658720064
-0.01528060747823901 0.01073457398815036 3.474332566343355
-0.5026696355505962 0.2581325928251255 3.377471919141817
1.033519324524782 -0.4721885760744107 3.81310557850461
-1.245334568755247 -1.445880277963449 3.544980044446993
2.877676781876467 0.7203435460607516 4.10746216305356
2.566937503083132 -0.003234251352120632 4.223976368986177
2.56368451998987 0.02863945165080906 4.225809092603731
2.540439900620363 0.02743436494274021 4.285930390440035
1.158619221909426 -0.5660571893175137 4.176642413221407
2.421673592789553 0.07299532094402195 4.437997098051119
0.9493235914544087 -0.4666943391283047 4.367562527738619
0.953452405198 -0.4698352654893887 4.37946676739316
-0.9527940185233135 -1.268344267221261 4.22864341267209
0.3584769635037404 -1.048205478997995 4.656983132444429
0.9905078975991231 -1.634524448724557 4.914184088789034
0.5389991967514973 -0.6017151912172329 4.767499680601167
0.8413804738358479 -1.584526880594064 4.937159533582735
2.154306945069216 0.1236432949583042 4.97755813130002
0.8324722020462971 -1.557513817163278 4.965247149549532
0.851781365139864 -1.520616873117258 5.000250573240328
0.9465714065865498 -1.473037584634592 5.008298392377901
2.145604190094851 0.1404606262723911 5.031231160245943
0.9657506315545064 -1.4600535472353 5.055771107755708
2.046550807221315 0.08419098058147312 5.063678021513033
0.9238701431588154 -1.440520866723825 5.057778115354585
0.4847279159859639 -0.5833486159761441 4.906751628004121
0.4627934067086201 -0.6303781112154019 4.915463919721651
0.8489834635094624 -1.355574949594308 5.083933110319185
0.8457813231781941 -1.349816664071847 5.09847402104001
1.987813052399538 0.09645117917461277 5.15591334828
2.018076237900637 0.09705425897045017 5.163481469236421
1.819181856377504 0.06198562779826999 5.29965662487607
2.729448374970339 1.422525064138602 5.38316320904355
0.9711311428383809 -0.6604513963182461 5.373396391950655
0.9510529606179219 -1.05098782381611 5.481622214399385
1.457685407860659 -0.07354341349201321 5.484453673444795
1.811447676880739 -1.619608982415963 6.149667735181856
1.611108717186831 -1.641543014856149 6.166388030134248
1.013763245804689 0.03267277875347019 6.242318148695039
-0.922221365706541 -1.083393438669015 6.2443561507092
-0.8954780132933635 -1.066546781869699 6.254308219038057
0.2653370468453389 -1.013457640023995 6.387016768537569
0.2227035431698781 -1.519260271402169 6.412319655500459
0.2349234192208272 -0.8751243194063196 6.442093367658662
1.116228398545168 0.5128019014875401 6.454299922071504
-0.8470655114813823 -1.037613733621408 6.377237792097139
-0.8708019883795757 -1.041581734033395 6.382284636579561
0.295325305922411 -0.8334191878755579 6.458909983717012
0.2407970993355733 -1.490134580941964 6.493766303144502
0.2915087311104756 -0.8931583007295618 6.474880690656709
-0.8331527145072002 -0.9834569533784876 6.404452796064424
0.2354761926964741 -1.463206632943917 6.515566821180391
0.8034277527169209 -0.9403079589326868 6.554355616651582
0.8924593894318562 0.03297616639537693 6.525552268110323
-0.4167830975218791 -1.575478418680001 6.509373660169649
1.200852092965029 -1.144398792596627 6.634678835950899
1.099981722100161 0.6223559538404454 6.581319804273653
-0.4567174346610088 -1.487610205026437 6.570332522474336
1.120604571564577 0.9049329320470799 6.63594436176877
1.082097110016726 0.2754789749662387 6.670297617994356
-0.3248576702042598 -1.476912840219308 6.641684050642061
-0.2995596708222408 -1.48031960329609 6.67232131489377
-0.17761129452429 -1.512704237314034 6.700572009168672
-1.223868313567259 -1.65256343683796 6.648164267622041
-0.2970531464978237 -1.491578443857003 6.698768611036348
0.828886565430544 0.563663856176566 6.738405222974825
-0.1362087310715694 -1.51867614588337 6.777477736555147
-0.2566032291813869 -1.341293199868966 6.780880923353243
-0.6903922588988323 -1.234238489480783 6.844541544996309
0.8089899985627156 1.051852003721427 6.874833102308321
-0.6484050185843486 -1.187722547860909 6.855834479414034
0.7882751195267659 0.9479592303316106 6.889552111707735
1.060980972512148 -0.4537262757738123 6.940871710859346
-0.6130425961180705 -1.199061020227242 6.930027003370332
1.466060694916628 -0.2002338012178431 7.071743483625459
1.060742911560915 -0.1922921975572596 7.08598565586667
-0.4510846467181224 -1.222548111291696 7.08543109425168
1.122058686478518 -0.2802352746446619 7.197994227491426
1.036522921784304 0.381156520036887 7.473352904401827
1.043290194733522 0.3713317672292699 7.500447745405245
1.010401782257937 0.3355947891752232 7.541618342481661
1.247809466584108 -0.432560427995492 7.662934775434541
2.19823795245447 -1.50455604395466 1.628156657300997
2.20643263743677 -1.567046268792917 1.74950044878583
2.223690804703615 -1.516902311654855 1.797948445163775
2.25514655993738 -1.373633726449777 1.886231268726397
2.295183715088747 -1.256029470773508 1.91682290562253
0.1820852427319508 -1.191469772668649 1.62676773496728
2.426897343857668 -0.9140895446260466 2.078001017652559
2.431661900742434 -0.8746253093202605 2.07536839970212
2.375008639557741 -1.021138532968332 2.115653987012911
2.429351863129519 -0.9276286204774871 2.184727783285189
0.5600383250550252 -0.1816238006074919 2.599637622915315
0.9494248001412373 -1.643780096383859 3.283454771123934
0.9549837677315693 -1.639769895883371 3.283566947065401
0.8671284286812764 -0.5117696364839568 3.279092307172823
0.9413824646309834 -0.5622809966524136 3.422864313207674
0.9479590027169209 -0.5591348250825894 3.423334236227083
0.9090858070687275 -0.555662020059396 3.478127951704073
2.777423915131472 0.2831140915433872 3.633686537824678
-1.329329911009886 -1.527504070611764 3.353984828077364
1.04472928927698 -0.5117019256074917 3.786586756788301
2.639679965241335 -0.07153735956745266 4.012595887266206
1.063754376633547 -0.5478610833604824 3.870883460126924
1.10271256850519 -0.5889315446336758 3.974057669721651
1.059162196381472 -0.4512952407320034 3.98434352406125
1.064985331757448 -0.4470934709032071 3.98446034916501
1.018642124398134 -0.4365868409593594 4.088541503034639
1.158140119774721 -0.5871248086412442 4.213152880750703
1.100173649056337 -0.6434432109315884 4.291702742658662
1.103138980133913 -0.660749181123544 4.318276162229585
1.048098620636843 -0.5922139724214566 4.351285452924776
0.1512504188851338 -1.4046016772707 4.429271693311739
0.9016931621865254 -0.4192815860231411 4.389576430402803
1.120953497155092 -0.6750739654024136 4.46420740612607
0.8596862523392659 -0.4181166728456509 4.419651503644991
0.1041537194088917 -1.406463964792062 4.505075450025606
1.178517278893374 -0.7238827784975066 4.546105380140352
0.1471769778565388 -1.322139128061105 4.533627028547334
0.1293265341357213 -1.322244747491647 4.537660594068575
2.411905583603762 0.08803571858806492 4.618362183652925
0.2579411535099965 -1.193877800317575 4.585132117353487
2.368324813111208 0.120278970388602 4.708801980100679
1.274750527604006 -0.7704580863435759 4.839267726026582
0.5414991943673115 -0.700949056955148 4.745370621763277
1.27188867018976 -0.8020957549531951 4.847848887525606
1.273893412812136 -0.8020080169160857 4.870739932142305
1.249951657517336 -0.7896073897798552 4.905715937696504
1.270118293030642 -0.7773848613222136 4.934872384153413
0.5301552383736592 -0.4633161862810147 4.842655892454195
1.870419916375063 0.05099369683666111 5.266459460340547
0.5906105010346394 -0.7028227885683072 5.392421717725801
1.009191569550417 -1.073608740182687 5.475560660444307
0.5862894623116475 -0.6982740004976284 5.399511571012544
1.295431193573855 -0.1815808852632534 6.192666525922823
1.202832278473757 0.3800950805227269 6.305715556226778
1.869792756302736 1.219192178038787 6.404682631574678
0.2833452789620381 -0.7907842238863001 6.445242400251436
1.322584923966311 0.9824997643510807 6.415882105909395
1.304755624993227 0.9257829348127353 6.431490893446016
-0.3371114165946025 -1.583355291696359 6.555278773389864
1.199482974274538 -0.9391149123628626 6.636541838727998
-0.2839713127776164 -1.556709631295968 6.595182414136934
-0.2914224149151821 -1.54397664866047 6.604794497571993
-0.2011565597220439 -1.608118398996163 6.612008090101289
-0.1700486571951885 -1.603325231881906 6.681559081159639
-0.1631563113494892 -1.586263759942819 6.677345748029756
-0.3293525011702556 -0.6944755156953824 6.667240614973116
-0.3313731433316249 -1.438932760568429 6.714015479169893
-0.2915820510550517 -1.465840681405831 6.737779135786104
1.171667155487917 -0.5964635451753628 6.786803717695284
0.248348530991457 -0.9548925002534876 6.811376090131807
0.234411296112917 -0.8172486861665735 6.855423922620821
-0.6596869261427898 -1.186450107904244 6.854905123792696
1.112926182015322 -0.5553834279497158 6.910378928266573
0.9701616136864644 -0.4342382987459192 6.973301405988741
1.058099683983706 -0.113277300210763 6.969687934003877
0.7350035278634053 0.7668816010038365 6.932613844953584
0.7397947876290303 0.8294903198759068 6.93092727192502
-0.6670612127944011 -1.210513695092965 7.024154181562471
0.1080990849570256 -0.9729281505067835 7.094760413251924
1.419713076813601 -0.2115357955415735 7.134049410902071
1.413156685097597 -0.5001696189363489 7.565651888929414
2.207982119782351 -1.543003662439157 1.780854697309542
0.916312512619875 -0.532519086213876 3.383371825300264
-1.358518782393553 -1.472641332956125 3.382356400571871
-1.268815699355223 -1.457899196954538 3.515992636762666
-1.24985832287512 -1.411701544137765 3.505837912641573
-0.07535293078563399 -0.1223144372423184 3.340256805501985
2.787216004593752 0.3089443007986056 3.604401106916475
-0.02398165626964754 -0.005874498697091335 3.382098550878572
-0.08258148594341463 -0.02215121588306546 3.394851083837557
0.2543578116730671 -0.01022241911487698 3.542346711240816
-0.3040053726597804 0.2653891006986606 3.433038587652254
2.679395732148073 -0.1217952807863247 3.882468218885469
2.677078065140627 -0.1102535565813076 3.90183996685605
2.836065348847292 0.4427568475286471 3.843618149839449
2.668299731476687 -0.04570470652179837 3.99970864781003
1.168035563691042 -0.6261561950166714 4.015780444227266
2.863300141556643 0.5314805070440279 3.990791316114473
2.842408713562868 0.5568815628568636 4.010221953474092
2.588994559510134 -0.0465186675508511 4.1196904135571
2.610958632691286 -0.02028666338520169 4.16572427281003
2.838391837342165 0.6837648312131869 4.142346377454805
2.852801141007326 0.6835056106130588 4.207440848432588
2.804117497666262 0.7111005345861423 4.251034493528413
0.43242048905649 -1.460810049386789 4.468879695020723
0.877818700535677 -0.4659350951631558 4.378967042051363
0.8931200473145466 -0.4446950992067349 4.392063374601411
0.8396015732125264 -0.3988671143968594 4.41362523563962
0.4806181757287007 -1.155902489038278 4.547112937055635
0.3368213741616231 -1.158308132501413 4.540591712080049
0.8381144969300252 -0.3813160499055874 4.439774985395479
0.8434714047745686 -0.3700591166933072 4.44597100742917
0.8678777782753926 -0.3967507918794644 4.450810427747774
2.804640349610231 0.8718840042631137 4.418484683118868
0.7918738691643696 -0.3614417155702603 4.491034503065157
0.4455964534119587 -1.024666889520456 4.645551438413667
0.4833289353684407 -1.026219709726144 4.644505496107149
0.3717839388684254 -1.042504652353097 4.66464137562375
0.4718759624794941 -0.9690962871034636 4.670624966703462
1.227085289223574 -0.8179532130678191 4.711297984205293
1.260627445443056 -0.8039563735445037 4.776070828519869
1.41815823004999 -1.551188810678293 4.925090069852876
0.9842726557091694 -1.63112960657673 4.913063044630098
2.760404643280886 1.034316525844764 4.652906413160371
2.30727845118799 0.09062017598552585 4.788166995130586
0.4350377886132222 -0.7346256812532439 4.814771885953951
2.782130059464357 1.128021762756537 4.747456784330415
1.207107838852785 -0.8095501502473845 4.951853747449922
0.8638032047585469 -1.440820320459177 5.041477675519991
0.9127369491890889 -1.375582083078195 5.063083405576753
2.790083941681765 1.147138834981154 4.819553847394991
2.761073645813845 1.241959148136805 4.885444159589815
2.033505257828615 0.08414067426128269 5.115948910795259
0.1297302810982686 -0.5453867753465664 5.337507243238496
1.317941602929018 -1.360494716974069 6.240109438978243
1.535491880638979 -0.2660193284471524 6.213204856000948
1.222586211426638 0.110238687185477 6.221426482282686
-0.9031209976836223 -1.096010073037911 6.260233397565889
-0.8775925071402568 -0.9819952090700159 6.265316481672334
-0.9285323651000041 -1.02931748232441 6.313794608198213
2.15360003398218 1.381949686495494 6.272459979139375
1.007833418114565 -0.759482248636056 6.431087489210176
2.038151559098146 1.279233697852026 6.327261920057344
-0.8773746521636028 -1.014750822397042 6.376676077924776
0.8521990148858052 -1.054073437066842 6.470349783979463
-0.7965683372183818 -0.9688275893648157 6.405405516706514
0.8268192379311543 -1.056550844522286 6.480288024030733
-0.7890581519766826 -0.9355741580446253 6.422005171857881
0.2897346286610585 -0.8311585029085169 6.471190924726534
-0.3727096946402568 -1.559506758065988 6.569375033460664
-0.4574255974455852 -1.485390528055001 6.591080184064912
-0.3324241073294658 -1.516269071908761 6.606431956373262
-0.1356515319510478 -1.509633406015206 6.695003027998018
1.197158989174746 -0.7311492999513636 6.735019202314424
1.164785918457888 -0.9444769462068567 6.759073252759981
-0.2550710321827907 -1.354845865579415 6.769468779645967
0.2705280749634724 -1.118833883615304 6.775808329664278
1.16319042132654 -0.6478799422700894 6.806260581098604
1.114851054413698 -0.7022145827730191 6.81411122807126
-0.137826557592966 -1.378502233835031 6.810939784132051
1.029613193734072 -0.7181833823640833 6.846694941602754
1.62759107039728 -0.3103390773256314 6.861781592451143
1.602124151451967 -0.3012382825334561 6.882657046400118
1.560905393822573 -0.2625955184419644 6.912727828107881
1.57686811373987 -0.2478116591890345 6.96131753452878
-0.4446486861868877 -1.195856436105538 7.00363063343625
0.9813366501168233 -1.020475729318429 7.081120486341524
1.186838087304018 -1.261319025369454 7.099622244916963
-0.3382977725430507 -1.163273199411202 7.067431922040987
1.175980862839602 -1.23583923182087 7.12236547001462
1.429892358048342 -0.2571737607439051 7.10765599735837
1.464912471039675 -0.2079270919282923 7.130381102644014
1.123807248337648 -0.3258164962251673 7.130592341505098
1.355209168656252 -0.2651415904481897 7.199349398695039
1.184250411255739 -0.2844061692674646 7.215255255781221
1.076643642647646 -0.1720005114992151 7.21851968296628
1.042427596314333 0.1476495424787512 7.547737593732881
1.164423760636232 -0.2981144031007776 7.766010756574678
0.08655994818963819 -1.288487776132394 1.477005000196505
0.09359949515619093 -1.286508901925851 1.484356398664522
0.09512546346940809 -1.259595974298288 1.521334825985241
0.1154098628596287 -1.242940052362253 1.559923234365988
-1.495122614638426 -1.542304142328073 3.257369036756563
2.266044673188112 -0.1383223374803557 3.249251837812471
2.843093451722048 0.1655411879102695 3.450588698469209
1.004331049187563 -0.5512726148088467 3.581807847105074
2.826102790100954 0.2451212564985263 3.518313880048799
2.606591281159304 -0.210145457597543 3.65929960735898
0.3187144367531758 0.01461185613078952 3.546277518354463
0.3110355703667622 0.01264156499309421 3.554351801954317
1.053561624749086 -0.552612646432687 3.728920455061006
0.4030192463234883 0.008992807058523899 3.590434069715547
-1.051948788897612 -1.294523580880929 3.980040783964204
2.673540410263918 -0.1175170978029263 3.899072880826997
2.630606469376467 0.009562269834707982 4.110681529127168
2.637008008225344 -0.01547633013324856 4.116720194898653
-0.986483696238615 -1.227128847451974 4.251593346677828
-0.9582174451514263 -1.211438997598459 4.261991496168184
1.096203741295717 -0.6756557067354214 4.222563500486421
-0.9547864229842205 -1.227359159799386 4.310277218900728
0.07731124447145277 -1.462998255105783 4.43406128414731
2.82111483500757 0.7559095779935825 4.213362212263155
0.188194003565691 -1.248672350259592 4.554835076414156
0.4806957213715535 -1.180874689431955 4.573128933988619
0.2778120009736043 -1.19496975740986 4.582292790494966
1.188087281449221 -0.7413247664888396 4.580127234540987
1.199261960251711 -0.7344959815462127 4.600834126554536
1.185220894081972 -0.7375641902406707 4.600704903684663
1.214962181313417 -0.7013608058412564 4.612966771207857
0.3439338176087361 -1.03571306070881 4.658598418317842
1.19422274516382 -0.7671063979585662 4.653988595090913
1.244455513222597 -0.7795606692750945 4.687587256513643
0.4107644526795369 -0.9099427302797332 4.710669274412203
1.418755110962771 -1.650209053369333 4.881497378431368
2.41543823169031 0.08599116006297947 4.600373501859712
2.394633826477907 0.1295677582303989 4.609994168363619
2.392321404679201 0.1043754974882114 4.645209307752657
0.5039297907189351 -0.8038025935609832 4.763435120664644
1.044752773507021 -1.649169309945871 4.941340680204439
0.4885318248108845 -0.8152280887086882 4.781300063215303
2.376854237778566 0.1307599703351963 4.673994774900484
1.045111951096438 -1.571553810449411 4.942109341703462
2.319011267884157 0.1015030304471958 4.788562054716158
2.309863385422609 0.1523779789487827 4.800488944135713
2.211289462311647 0.1249138275663364 4.880280251585054
1.299753364785097 -1.358216865869332 5.219806904874849
1.550936636193178 -1.595582111688424 6.249343390546846
1.356028851731203 -1.393454655023385 6.256292815290498
1.549171981079958 -0.2816699584444058 6.223414416395235
-0.9327387244864482 -1.05864630541401 6.287812228284883
1.342371877892397 -1.292081697793771 6.46879291065793
1.107061323388002 -0.9306706031282435 6.417500491224336
0.8555407492951375 -1.027765854211617 6.502868170820284
1.919142064316652 1.270158811522554 6.399314875684786
-0.3412089677020091 -1.483333929391671 6.625180239759493
1.222185549004458 -0.8960727294404993 6.6681523276196
0.2678475646809559 -1.122351988168527 6.75828790196042
1.196557697518251 -0.6875839074571621 6.795239920698213
-0.1373637349768657 -1.408575399728585 6.841076846204805
0.2798023490742665 -1.007271154733468 6.855617041669893
1.636340913041018 -0.2926047881563199 6.844555850111055
-0.7255904705687541 -1.211461408944894 6.852401728712129
0.2638027338818532 -0.9611054500062952 6.856437678419161
1.138708767159365 -0.7477205832918177 6.866274828992891
1.03978794501581 -0.5452380021532068 6.929059500776338
1.037388619645021 -0.5100896199663172 6.949430937849092
1.213157233460329 -1.246015652032662 7.128807063184786
1.072078761322878 -1.192680223794747 7.149467940412569
0.8533908693627339 -0.7502695163209925 7.143754000745821
1.075765904648684 -0.3541781743486414 7.139866347394991
1.169958886368654 -0.3700126250703821 7.15111016758542
1.075661477311037 -0.3387549956758509 7.155310626112032
1.173564013703249 -0.2904819091279993 7.18385171421628
1.180716094239138 -0.2897704680879603 7.183961386762666
1.249342617257021 -0.1972859939058313 7.409123416029024
1.249847587807558 -0.1877374490221033 7.427696700178194
1.288660940392397 -0.1674389680345545 7.43897056110959
1.271524128182314 -0.4235839684923182 7.677934641920137
1.319630440934084 -0.4394357045610437 7.734850878797578
2.218613204224489 -1.557913645120431 1.677527542196322
2.147292908890627 -0.7573319514711394 1.618665496789026
2.193491038544558 -0.7646280368288054 1.688422868929911
-1.361409607665159 -1.4763470729311 3.384856219373751
0.9461268751458149 -1.65201960405903 3.360356445394564
1.07228260920801 -1.587633951516916 3.455856080137301
0.8932918279007893 -0.5727226575334561 3.418359751783419
2.382727202637575 -0.1361300786455166 3.375927443586397
2.445655163987063 -0.1700630029161465 3.430754418455171
2.42814141200342 -0.1856486638505948 3.44447969921689
2.431144532425783 -0.1849540313203824 3.463538403593111
2.442975100739382 -0.1579197486360562 3.469528908811617
2.842776831849001 0.1340108076612461 3.405265207372713
2.821136531098269 0.2449110905210483 3.54343628414731
1.032326039536379 -0.4771959622819912 3.987889762006807
0.03331023143091016 -1.643549307199289 4.307358260236787
1.040501531823061 -0.3498253663499844 4.036071295820284
1.14572363780298 -0.6851510842760098 4.112784380994844
1.189415272934816 -0.7036517699678433 4.125625605665254
0.05084353373803907 -1.528958662362863 4.343704695783662
0.06879716800012403 -1.50208555063801 4.369915003858614
1.045911845429323 -0.4293324788530362 4.123213048063326
1.175639447434328 -0.5496371825654995 4.159421916090059
0.1450636951760274 -1.432835682245065 4.410574908338594
1.02972501204767 -0.3549493392427456 4.157072539411592
0.998369511826418 -0.3922184546907437 4.185662503324556
1.156240996582888 -0.5703795989473355 4.234667773328828
1.012502249939821 -0.434885128351022 4.330409998975801
0.9607717363671284 -0.4768793424089444 4.366531128965425
0.4943690268830281 -1.244746549936105 4.549007411085176
0.8653658001259785 -0.436075313897897 4.377433295332002
0.9583272306756001 -0.460295661302377 4.382315869413423
0.4597998230294209 -1.173641546579172 4.54413675793271
0.8310472934082966 -0.4359221299608242 4.39333748348813
0.8611255256966572 -0.4392759641130459 4.392516369901704
0.4950610368088704 -1.237029894204904 4.562467570386934
0.847343858940981 -0.4378520091493618 4.395022387586641
0.8282039134339314 -0.4283003648241055 4.401927228056001
0.8044245807961445 -0.4270282824953091 4.409346575819063
0.9296492903069478 -0.4231759150941861 4.404067988477754
0.4594917862252217 -1.160844429345895 4.571209664426851
0.8213706581429463 -0.4205168326814663 4.415592904172945
0.4836779801682454 -1.200137718530466 4.585012192808199
0.7893338172272664 -0.406454428048898 4.429460520826387
0.8075049488381367 -0.4135137637575161 4.42954992779355
0.4528780548409443 -1.117636545511056 4.608042235456514
0.7944207160309773 -0.4143163999040615 4.469751353345918
0.8122091858223897 -0.4025614102800381 4.466478343092012
0.8341357080773335 -0.3880889256914151 4.460995431028413
0.8540824620560628 -0.3877956708391201 4.460718388639497
0.8411210744217854 -0.3736412366350186 4.472004170499849
0.7198827235535603 -0.3577657779176724 4.510747189603853
0.7709313003853779 -0.3488721688707364 4.517759318433809
0.763552126152895 -0.3469879468400967 4.541529173933077
0.7527957527474385 -0.3397884210069668 4.559167618833589
0.9192646114663106 -1.505392416330148 4.973342413984346
0.8650029866532307 -1.55294357142048 4.989671464048433
1.048984107239626 -0.7198575576265345 5.207737917982149
1.059281882508181 -0.7078175385911953 5.208096976362276
1.04602938578882 -0.6923546632249844 5.272386784635591
0.9565044014290791 -0.6447585662324917 5.376972432218599
0.8433308570221882 -1.277259214731027 6.228940482221651
0.8503439991311055 -1.276957853647042 6.235866065107393
0.7361231415108662 -0.8792279799898157 6.218521590314912
0.2079556553200703 -1.577818258615304 6.435259814344453
1.060525235398195 -0.9080830653627405 6.400064463697481
0.3030989734963399 -0.7993548949678431 6.502276415906953
0.9813986389473897 -0.6771341403444302 6.498456950269746
-0.2882635326548595 -1.588569982858468 6.576983923994112
0.9860190718010884 -0.6719477017839444 6.505383486829805
1.220641669495485 -1.148632391305734 6.622403616987276
1.200177249176882 -1.106407268853951 6.661162848554659
-0.1480224647983093 -1.624637230249215 6.705159659467745
-0.119183012606122 -1.5539518435915 6.779966349683809
-0.2789112211628932 -1.146640165658761 6.794151778303194
-0.09712481530896611 -1.36080489954548 6.840225691877412
0.2326227097348195 -1.060231073709298 6.825568671308565
-0.910843613879301 1.622375057129096 6.684168334089327
0.2433190612629872 -0.8916553100069056 6.859374041639375
-0.8271310360594768 1.611629472164344 6.721480364881563
-0.2623791129752178 -1.114783390374948 6.924152846418428
-0.7324450643225688 -1.357864244790841 6.975664134107637
-0.4210996658965129 -0.8450869162996302 7.082094664655733
-0.4809296758337993 -0.9334014495332728 7.091599936567354
1.071466383202456 -1.194497450204659 7.134013648115205
-0.1597494961186428 -1.018454178186227 7.136549944959688
1.112014230950258 -1.19193635782795 7.162309641920137
1.43943553851404 -0.2000011046846399 7.126274104200411
1.043932852013491 -0.4192976792772303 7.448500628553438
1.401883181794069 -0.4746875604112635 7.556079859815645
0.3379505841568928 -0.8873501857240691 2.200026686273623
0.4995289413765889 -0.4866016944368377 2.38971656092267
0.497219380600832 -0.5061672767122283 2.437348957143831
-1.437568965689756 -1.554282053323556 3.290415759168673
0.7938563196495991 -1.651538475366403 3.30376982220273
-1.223744693533995 -1.423572405191232 3.509538407407808
1.044638690216921 -1.627153499933053 3.36202132233243
-0.06977892233572192 -0.03599284491138577 3.385752077184724
-0.08644224083564467 -0.03604696592884182 3.397358532033968
0.06495102928438001 -1.505857094140817 4.35251020916562
0.1502137152985554 -1.411683901162912 4.418166394315767
0.1825079886750203 -1.388192756982614 4.462487454496431
0.3097675411538106 -1.163523062082101 4.554044003568697
0.4569150774315816 -1.214712484689523 4.579479451261568
0.4586636392907124 -1.172335728021432 4.585721726499605
0.4133803217247944 0.1244716803113926 4.380070443235445
0.4880024163559895 -1.115502460809518 4.630451674543428
0.3532276420430165 0.1010626713315952 4.461812014661836
0.5199614136055928 -0.9897407134492888 4.66203546055417
0.9772327511147481 -1.597796066613962 4.94138288029294
0.5636082260445576 -0.3996231397111905 4.973035330854463
0.928587493164919 -0.7694285949190149 5.265804286085176
1.090950068695925 -1.234763487191964 5.368441577039766
1.496071514351748 -1.591629370065499 6.274818415723848
0.18457132266321 -1.560623510690499 6.363259787641573
-0.4688639671965618 -1.58251367411213 6.441417689405489
1.431781348450563 -1.435863836618234 6.387395377241182
-0.4555944831534404 -1.600125177713204 6.46906899937253
-0.4588913948699016 -1.556705101342965 6.50605344303708
0.2792100875214558 -0.7966815074403772 6.521668429456758
0.2777213423089009 -0.8017250140626917 6.508069987379121
-0.6707972915335674 -0.8836597045381556 6.547050948225069
0.2133757142857533 -1.270969494195748 6.643350596509981
0.2422878413037282 -1.240110023828317 6.694675440870332
-0.131187043474533 -1.489178284021188 6.740753645978975
-0.1706264422698993 -0.614687546106149 6.752832884870577
-0.8177401454611797 0.9308533827344884 6.671796794019746
-0.7660847933455486 0.9627234796564091 6.673887724958467
-0.2348905385895748 -1.277166231485177 6.838679785810518
1.078307804329775 -0.8359585841615687 6.809675211988496
-0.611751440302946 0.9877914945165623 6.819300170026827
-0.4794639082118053 0.9780989150087346 6.821640963636446
-0.4473098845644969 0.9828025857488621 6.833714480482149
1.100809153778933 -0.5364230712373743 6.920887465559053
0.2511624364689808 -0.7924479087312708 6.964213366590547
-0.57136768414221 1.2330707880239 6.922815318189668
-0.2097011612220783 0.7233873168508519 6.946026320539522
-0.4680061073466319 -0.2406428893526087 6.996016974531221
-0.4282502563162822 -1.228083952279855 7.043500895582246
-0.51001075221739 1.164195203272532 6.947769637189912
-0.4601727457209606 -1.227206095071603 7.051244731031465
-0.4170859487219829 -1.216504200311471 7.070335860334444
-0.5020303161307353 1.067856595901679 6.964918131910371
-0.1486437389119644 0.5608073035757054 7.002401347242403
-0.2978868068619747 -1.103306158395577 7.091161723218965
-0.3236278922720928 -1.092693670602609 7.111199374280977
-0.005313816802122062 0.2332798401395788 7.058898921094942
-0.004774037139036125 0.2347341934720983 7.066202635847139
-0.001659336821653312 0.2044016281644812 7.067503924451875
0.9087867109612446 -0.8546658595521937 7.113937850080537
0.06433133469381147 0.1479344526807775 7.114185805402803
1.227599319680117 -0.3371736844499598 7.211881632886934
0.01974099562921339 0.3105097571889867 7.362761969648409
-1.491134467856504 -1.531810386987497 3.268264646612215
-1.212651196257688 -1.390468939157297 3.577433104597139
1.116686043007753 -1.627208574624826 3.519578452192354
2.348838385804079 -0.1707885106523526 3.384273762785005
-1.022508207099058 -1.264516456933786 4.116682286344576
2.452023801072023 -0.1789499362428677 3.460057969175386
1.125213798745058 -0.5918378671129239 3.88382672794919
1.115791615708254 -0.5781993707139981 3.889011616788911
-0.6820614965125102 3.296705142645072 3.459408636175203
2.788977202637575 0.2812581221143711 3.634002680860567
0.4222008554772358 -1.621819599481393 4.410784001432466
1.143828329308413 -0.6877826293428433 4.384765858732271
1.179234441979311 -0.7148428996522918 4.387354130826997
0.3979599444703084 0.1418018499891269 4.357174391828584
0.4282115666703206 -1.151273115487863 4.596147055707979
0.4955626098946553 -1.116600378366281 4.627131695829439
1.162037905915163 -0.6999553283174527 4.487830395780611
0.4777278868988972 -1.093947275491525 4.63919233807187
1.187095340950869 -0.7129450877626433 4.546894545637178
0.8442127673462849 -1.593250854821969 4.950528616987276
0.4701710312203389 -0.5163186629732144 4.940379376493501
0.9344988434151631 -1.042772873254586 5.467385048948335
0.9096527664498311 -1.021806581826974 5.479379649244356
0.9378328888253193 -1.063477857919503 5.510403151594209
0.9207834570244771 -1.039200170846749 5.523887629591036
0.9061030714348774 -1.032699211450387 5.532526011549043
0.8645844428376179 -0.915016277643014 5.598175520978975
0.3787054388360005 -1.652873619409371 5.902199263654756
-0.7181443603201885 0.3606668869535435 6.214369769178438
-0.4407477708025951 -1.65102182230549 6.443079943738985
0.2392892508343678 -1.132103308053781 6.387060160718965
1.24303251193323 -1.022710188241769 6.335902209363985
0.2493684856728535 -1.061627252908517 6.389629359327364
0.2429371445015889 -1.101604803415109 6.392453665815401
0.2018163769082051 0.5578494826833714 6.294536585889864
1.276817378266237 -1.208979948373605 6.377829070173311
0.1256467966870289 0.7863018671552647 6.307735438428926
0.2517130343750935 -0.8139012893159876 6.494509692274141
0.8449888794259053 -1.042946203561593 6.500107760511446
0.8284912674263936 -1.02834640345173 6.506988997541475
1.299431380494021 -1.301852091165353 6.52405356892209
1.282419499619387 -1.206650598855783 6.541866774641084
-0.8542521627112407 0.1007917086164463 6.535793299757051
0.7645213572815877 -1.027577980371285 6.557903285108614
-0.8861056597395915 0.05477859177989841 6.556662554822969
-0.8783064515753765 0.1047259727994907 6.564115996442842
0.759107169373415 -1.003019197793771 6.585955138288545
0.1168270824984532 0.8129957179109563 6.495700831495332
0.1357220529154759 0.52448220649166 6.520169730268526
-0.8759241731329936 0.04395164647502781 6.594626422010469
-0.8816611797972698 0.01057900586528659 6.616295809827852
0.109307673437975 0.4323917190114964 6.568620200239229
-0.3251180083914775 -1.384776457162667 6.704223151289034
-0.8497751386328716 0.01989199319286228 6.644684786878633
1.16639345572748 -1.021857603402902 6.661484236799287
-1.094770911471464 -1.625701292367745 6.781977171979952
1.151776608689211 -1.000552757592965 6.67780637272458
-0.8558436663313884 0.03439129987163425 6.691855902753877
-0.2713456334038753 -1.351814611764718 6.754318232618379
-0.790378275649168 0.9449207941572179 6.65242909916501
-0.2626629651947994 -1.351679666848947 6.767134661756563
1.181029257042788 -1.038019522043038 6.704648966871309
-0.3090629012747783 -1.268768652292062 6.771677012525606
1.172907885773562 -0.8333219130952845 6.702499384962129
1.182825860245607 -0.8537751277406702 6.702700610242891
-0.7315396697684307 0.9857489029447545 6.660293097578096
-0.6825430424376506 0.9988984624425877 6.672616477094698
-0.8243891627951641 -0.1179736693819058 6.743738169752168
-0.2646132440730113 -1.343071087213326 6.794486517988252
-0.2567424209280986 -1.365495069833566 6.796183581434297
-0.2696644843979854 -1.285443170877267 6.799105162702608
0.2262999682263356 -1.105182989450265 6.794772143446016
-0.7946881683035869 -0.1582187255342495 6.777811522565889
-0.2924030007287044 -1.125939949365426 6.833652968488741
-0.5591284365817089 1.023398743061255 6.722779746137666
-0.261398035423376 -1.199642999978829 6.838616366468477
-0.2480151982470531 -1.264283998819161 6.843883986555147
-0.7839673192664165 -0.005766614290047878 6.794097895704317
-0.8387076289816875 1.607797221330832 6.718924517713594
-0.1891982214017887 -0.9393955310304651 6.851964469038057
0.2659080593422871 -1.03616677126484 6.856137747846651
0.03736501620569044 -0.08510230383472561 6.816648955427217
0.2632849781350117 -0.944294555993844 6.861888880811739
-0.1711591140790958 -0.8631025393922815 6.87575673588376
1.132887539132021 -0.7868858416994104 6.839860911451387
-0.5941135318442363 0.9734187284986485 6.798514361463594
0.2620835571125966 -0.9232348044832239 6.88099526890378
-0.1801982627674121 -0.9168130000551233 6.903231139265108
1.136704501374147 -0.704712255807687 6.869932646833467
-0.5457410247488994 1.313957435129117 6.840700621686983
-0.5744675727053661 1.000556604055594 6.87203359135251
-0.4724075825377483 1.054171280054282 6.90445661076169
-0.604476723210432 -1.057043178888131 7.005053515516328
-0.4843625755473155 1.067529500512313 6.920155043684053
-0.1129068889147717 0.433461801199149 6.987143988691377
-0.08886562785647101 0.4688027063886632 6.99839496143918
-0.06929822577676958 0.7489175359289159 7.126657481275606
-0.01412020935259051 0.7212366024534215 7.173136229597139
0.005853225155256325 0.1337233940641394 7.281326289259004
1.04902559207239 -0.4481943686922083 7.287419314466524
0.03961489783086591 0.07316507497234248 7.32955836781125
0.05855962322511488 0.6573152104894627 7.317278857313203
0.03404576764859968 0.2933060685674657 7.361387724958467
1.131200846894167 -0.286314352365304 7.75951146610837
-1.478701892630674 -1.484797581048776 3.321631546102572
-1.360711160437681 -1.46473179659443 3.394395108305025
0.9229368536309224 -1.593479736657907 3.303310985647249
0.05965050743379408 0.01887382665080906 3.41186570652585
0.8980976908043843 -0.5297380526979458 3.328739876829195
0.8949552147225361 -0.5352994044740689 3.376313681684542
0.9068471758202534 -0.5499145825822842 3.401524062238741
0.1281643478707295 0.1592327515165317 3.594574446760225
-0.7526537211104412 3.343146459249686 3.313077802740144
-0.7754927904768962 3.355003968862723 3.324089403234529
0.9778913824395161 -0.5061505874116909 3.729752059064912
0.9911877481774312 -0.5212490399797451 3.729606623731661
1.058176335556887 -0.4481525262315762 3.833398575864839
1.057659563286684 -0.4942061742265713 3.867155547224092
1.035096701844118 -0.4795155366380703 3.956585402570772
-0.5829104216261882 3.215905205396842 3.774203057371187
0.01624344722785764 -1.600624426217844 4.370459075056123
-0.4215599925681133 3.045788780836295 4.030930991254854
0.160363969071291 -1.313034876199533 4.525006051145601
-0.3754074604674358 3.034729973463248 4.101636405073213
0.934436496956728 -0.4497709115465176 4.343735928617525
1.002823528511904 -0.4644963582475674 4.339364523969698
0.4281933872536641 -1.261509283395578 4.536405797086763
0.9617390005425435 -0.4618140300233853 4.408144946180391
0.3196030227974873 -1.023565634103586 4.593984837614107
0.3234682051972371 -1.096146686883737 4.629194970212984
-0.2935882986947078 2.803707853941154 4.260471577726411
0.4780750839547139 -1.068658216806222 4.659600014768648
0.507685062153719 -1.021695717187692 4.657407279096651
-0.2279650078578968 2.801585213331412 4.360327239118623
0.2487059204415303 0.1115557114164341 4.90815329083066
1.164452609284304 -0.8066848357637419 4.92270063885312
0.9842796890572529 -1.496338232370187 5.034492726408052
0.6662656037644368 -1.087128265710641 5.259099240385103
-0.4747218520804424 -1.652201040597726 6.37315082081418
1.537529286606691 -1.625735863061715 6.246220107160616
0.218363818390749 -1.612827642770577 6.388617034040498
-0.4620511562987346 -1.581862314554025 6.452388758741426
-0.4840915830298442 -1.572077616067697 6.462226386152315
0.1779431073502522 0.7540050903837193 6.292315001569795
0.1944659321145039 0.7483051578084935 6.299938674055147
1.360513266785524 -1.323299034448434 6.441038127027559
0.1552267639473897 0.9611578146497715 6.437151904188203
1.30675035403528 -1.293325527520944 6.524467463575411
-0.8832852275534648 0.0591784874479282 6.593945975385713
0.1240591524676304 0.3520097891370763 6.54209613331418
-0.8547390134497661 0.05579342046184421 6.618566508375215
-0.8733148009940166 0.02054752507610202 6.623807425581026
-0.8617200286551494 0.05709709325237156 6.62837075718503
-0.5696982772513408 0.1073233048002231 6.640136714063692
-1.164019170539 -1.62994323572712 6.762903685651827
0.1366430936888676 0.3995210091154088 6.605643744550752
-0.2517537058754939 -0.6624203761537564 6.708611960493135
-0.8593289883299846 0.9311669627706517 6.661289210401582
-1.126659456030943 -1.601936443658639 6.825017447553682
0.1299002139405232 0.2239592234174717 6.686641688428926
-0.9841746719046611 -1.479804380746652 6.853042121015596
-0.8550543220206279 1.60825638571186 6.708653922163057
1.159853395684145 -0.8588811000307093 6.74232053288083
-0.7246390016242046 -1.23143421015339 6.842888350568819
-0.1899079264565486 -0.5885953744371426 6.833499426923799
-0.6527594955130596 -1.183340414377023 6.893173213087129
-0.8333011300726909 -1.455101354928781 6.916617865644502
-0.1945745454593677 -0.5570170720537198 6.862381930433321
-0.5883621604605693 0.9922977546731938 6.830690379224825
1.01715975688257 -0.6906919320543301 6.861305232130098
-0.5183066756888408 1.255357400564383 6.839418883405733
-0.582438650862791 0.9699869314710606 6.852433676801729
-0.5086202056571025 1.253860131887625 6.846560950361299
-0.4718837769194622 -0.2649413188417444 6.957867140852022
-0.4728987248106975 -0.2567386468370447 6.971267218671846
0.8014818994835835 1.086730421570968 6.890676493726778
0.03330751941957288 -1.030981644006539 7.008390898786592
-0.5708160729571361 -0.9802821715791712 7.03050755985837
-0.589502814547636 -1.048473461480905 7.033375258527803
0.9291111795739155 -0.86642537912922 7.09920644291501
-0.1310033233328838 -1.020395620675851 7.144796366773653
0.1162827430800419 0.5067740241567601 7.236035819135713
0.144535568220995 0.4118550578634251 7.242607588850069
0.05715778158464246 0.9233324686567296 7.237285609327364
0.1343312828377705 0.4391775886098851 7.250105853162813
0.02366548465051466 0.2698160568754187 7.359365458570528
-1.438623491065123 -1.542202576013376 3.308127517782259
-1.381829086081602 -1.486621960016061 3.350048418127108
-1.35673088146887 -1.449665411325265 3.360131616674471
-1.349936667220213 -1.465293033929636 3.369203085981417
-1.16587919308386 -1.392409189554025 3.643021578870821
-0.05448621823034472 0.02943624654216648 3.362554068647432
0.03935631798066908 -0.003408773752022976 3.507310862623262
0.06790277050294691 0.02560795941753269 3.530469889722871
-0.04128900481901354 0.2360389391462314 3.556606049619722
